# 3D point list with one line of data per point:
#   POINT3D_ID, X, Y, Z, R, G, B, ERROR, TRACK[] as (IMAGE_ID, POINT2D_IDX)
# Number of points: 214, mean track length: 4.0327102803738315
1 0.87826997900594295 7.8316030918605213 32.308712882919295 71 55 44 2.3746698833506334 29 0 49 0 28 0 43 1
2 -0.1784683157459474 -7.7007113899518869 25.292433044643811 88 67 50 1.6594486276754752 49 2 52 3 46 4 21 5 22 3 24 4 50 5 42 6
3 -15.24961533541625 16.779450003769888 39.932596151231195 213 218 221 1.4580813038926173 29 8 49 6 52 7 21 8 51 10 43 6 22 5 24 6
4 -10.151454154848439 8.09890286810211 36.864654423331572 122 123 115 0.86434264953846662 29 9 31 6
11 8.3825096984106029 14.42685645468592 23.897385506391775 111 93 69 1.0786882359677845 29 26 49 20 52 22 31 30 28 16 31 25 43 20 22 28 24 30
12 2.3555205587377133 17.316654318167966 30.269401596470399 150 132 112 0.91051906792271886 29 22 49 21 52 21 31 19
13 5.0384993251185799 13.724475841885091 34.853903674585069 51 35 35 1.5963276183321304 29 21 49 23 28 24 43 27 52 19 22 31 24 21
14 5.0384993251185746 13.724475841885081 34.853903674585048 51 35 35 1.5963276183320736 29 24 49 25 28 19 43 17 52 23 22 19 24 33
15 6.0445479783655394 18.581750202681206 29.020195158624475 154 134 109 1.8028569054014001 29 39 49 29 31 23 46 33 28 30 43 38 24 41 51 53
16 1.2189620507550711 14.183921924617053 37.768674055562201 127 106 77 1.2539741602558574 29 37 49 36 52 29 31 32 21 34 51 34 28 31 43 35 22 41 24 40
17 -5.2454542623521636 16.082538346390486 40.243547142072032 171 164 154 1.1865613966652342 29 53 49 40 52 57 31 52 46 50 21 55 51 51 28 55 43 52 22 60 24 59
19 -5.0559068067861519 -7.646263628966194 31.910679318932857 224 230 228 0.98542342681068185 29 31 52 48 43 45
21 8.4725992060429647 -0.64731191895197426 37.323359651826927 204 201 194 1.8058941002368927 29 44 49 49 52 53 28 39 43 40 24 52 22 91
22 5.8203945069703931 2.2413110341046649 21.337947543549792 157 153 144 1.3387862807789046 49 50 31 33 46 48 52 55 21 41 50 58
23 -8.1260793898501333 14.873203037247627 39.618784459748319 68 61 43 1.4175898357892889 29 52 49 51 52 56 31 51 46 49 21 54 51 41 28 54 43 51 22 59 24 58 50 45 42 73
24 -8.7172053524295094 -4.302942619213197 43.391576869101947 45 34 26 2.538984087243076 29 43 49 54 52 51 42 94
25 6.0044613104616822 17.546136097485327 32.408245240141987 51 33 29 0.73830703061544012 49 55 52 60 28 57 43 54 22 64 24 62
26 8.4313054497340723 18.070510576102787 25.001606854256927 146 159 167 1.3760382534055688 29 40 49 56 52 61 31 54 46 53 21 57 28 59 43 56 22 65 24 64
27 0.01434673354195857 -1.9747074956534421 33.387205585392699 39 31 29 1.8031190093622238 29 55 49 59 52 63
29 -0.63154935665791545 17.873329132924489 35.247198553913691 32 15 15 1.0000818809796217 29 75 49 66 52 72 31 65 46 80 21 75 51 67 28 68 43 67 22 77 24 71 50 64 42 70
30 -9.1629657336621726 14.404212176906354 34.262917235945842 171 155 141 1.3202569006773179 29 76 49 67 52 73 31 64 46 96 21 96 51 87 24 81 50 65 42 61
31 -2.7633676510196579 2.6666606356257745 48.610736248512502 143 131 105 0.8156119490286684 29 99 49 68 52 86 31 101 46 116 28 119 43 124 24 91
32 4.432794643459796 -4.6802880027739588 36.091660025430045 195 195 187 1.3654533459054914 49 70 21 62 52 77 50 56
33 4.2158214884430238 -4.4042919796925837 34.682207580935241 195 195 187 1.7655235248245631 49 71 52 79 28 124
34 -1.9103288115731647 -6.574970189671439 37.977709009225393 37 27 26 0.59696975319390855 29 60 49 72 52 81
35 -2.7737073959744531 2.68971767973864 49.093370161322312 143 131 105 1.1451814812465082 29 78 49 73 52 66 31 93 46 95 21 114 28 99 43 100 22 99 24 66
38 -1.910328811573166 -6.5749701896714345 37.977709009225386 37 27 26 0.59696975319389922 29 46 49 79 52 75
39 6.727458991302357 -0.25715086492074463 38.571185850896448 32 23 24 1.8896679552215676 29 98 52 85 31 72 43 85 28 85 22 71 24 90 49 81
41 0.18533131644298734 9.4849835342543365 41.05466061106263 71 54 36 1.7103506086316016 29 64 49 85 52 83 21 81 51 123 22 88 24 51
42 -10.681670006785918 14.022970204886157 41.100211242151751 226 227 219 1.6149812131573695 29 66 49 86 52 92 28 73 43 89 22 89 24 98 31 109
43 -9.1629657336621726 14.404212176906354 34.262917235945842 171 155 141 1.3202569006773179 29 67 49 87 52 95 31 70 46 92 21 121 51 120 24 78 50 59 42 72
44 4.4258095620812137 -4.7385628122145418 36.19255149271298 195 195 187 2.1654225823004132 49 89 31 59 46 56 21 61 52 76
45 -6.0235001075800652 19.780309008729581 35.250420032202832 168 152 127 0.66102299639868634 29 71 49 90 43 110
46 -0.63154935665791545 17.873329132924489 35.247198553913691 32 15 15 1.0000818809796217 29 70 49 91 52 96 31 67 46 60 21 82 51 61 28 71 43 74 22 94 24 69 50 62 42 65
47 5.9086492086980389 7.4502070077895084 23.508531594478839 155 139 113 1.3126918770900824 29 63 49 92 52 94 21 122 28 72 43 76 22 93 24 68
49 -1.3620230558283071 -0.95432080018692655 5.6495724782725025 80 61 44 0.52483838229930468 29 92 49 106
50 -10.874370068373564 -6.8517077439069682 38.419597968617005 6 1 0 1.215185555710518 46 30 28 127 31 35 43 90
51 -1.3620230558283071 -0.95432080018692655 5.6495724782725025 80 61 44 0.52483838229930468 29 80 49 113
52 -1.9281642407282529 -4.1514263377253089 37.256232634773816 142 142 132 1.6942026656580982 29 68 49 123 52 126 31 61
61 -2.2833576029959248 -1.1959528681509204 37.111567004606783 21 21 15 1.7688904338908582 29 28 52 26 22 35
66 -2.2833576029959248 -1.1959528681509204 37.111567004606783 21 21 15 1.7688904338908582 29 33 52 39 22 38
72 -4.9944325047315168 -5.4066548401964321 32.56843947321574 7 2 5 1.3124207834063453 29 47 49 34 52 49 31 38 46 43 28 36 43 32 22 51 24 43 50 33
78 -1.912656871337121 -6.5678877833318943 37.909519975182093 40 32 30 0.66819398081833681 29 59 52 80
106 10.598648942948801 19.454387536700878 21.517615863511036 215 221 221 1.3664411030574892 49 19 52 25 31 20 46 17 21 17 51 16 22 18 49 26 52 37 50 20 42 26
111 -4.9674773991554719 -5.3859673123838725 32.403833137910915 7 2 5 0.92044614512932488 49 27 52 64 46 55 50 39
114 -7.5498560713566727 -1.7019674983242778 38.803938781796973 58 44 40 1.4581636719985387 49 80 52 84 31 116 46 118
115 7.2577729476490456 0.77966343160072837 24.131168997822378 96 93 88 1.2231464440773896 49 82 52 87 31 96
118 -4.2205563219798767 -8.2723440195942093 29.741982338974051 7 0 0 1.27057654338256 49 114 52 100 31 97 46 84 21 102 51 103 50 112
123 -9.7752195962961466 4.3840341857556346 39.665206815999774 138 124 115 1.1088257620766506 49 122 52 111 31 111 46 102 28 118
125 -13.010419589270722 19.683985138186429 36.581547597702944 158 164 164 1.2599911617246551 52 116 31 106 46 106 21 123 49 118 51 118 28 108 43 112 50 123 42 101
126 -6.4088815315972871 13.479765823021937 39.036422521266708 28 18 3 1.2712087552767073 49 120 52 119 31 108 46 103 21 120 51 121 28 113 43 117 50 126 42 108
127 -5.9412904114606215 11.568788230515848 40.327263813459616 219 226 219 1.5605820569776867 49 121 52 120 31 110 46 113 21 117 51 122
129 -8.5031549017869619 3.9973287861480382 42.608437491974186 155 151 142 1.469451450683438 49 124 52 123 31 112 46 115 43 123
130 -39.003752083397565 3.138051038483483 86.783347672642478 179 187 172 1.3445540825040183 31 8 21 7 46 7 51 12
131 0.9823455341724423 8.2298239909045972 35.962264670136697 64 47 27 1.0099161801112619 52 0 31 0
132 0.0047022945748642526 21.510343472100622 26.611735507816224 179 185 183 1.7100752546396516 31 1 46 2 21 2
133 0.0047022945748642526 21.510343472100622 26.611735507816224 179 185 183 1.7100752546396516 31 2 46 1 21 3
135 8.2164290256086083 11.618265891057776 24.873850101167907 153 138 117 2.1528871120207596 46 6 50 15 21 9 51 9 42 20
138 -52.608493212271469 -37.648139061354193 110.27356684535728 171 158 139 1.4242803246909943 52 8 31 21 21 20 51 27 28 11 22 17 24 9 50 21 42 23
142 0.53247388936062778 -7.5375287791614083 25.751539493291688 84 66 46 0.32523167585842183 29 56 46 58
145 -53.618802310583916 -41.185158831463291 101.4679859733094 154 88 76 1.5367222840977883 49 42 52 45 31 42 46 41 21 53 51 42 28 40 43 71 50 55
146 -0.12838903679982103 -4.0093532619073358 24.845024631813359 34 18 16 0.38192439577884996 49 99 31 43
147 -0.12838903679982103 -4.0093532619073358 24.845024631813359 34 18 16 0.38192439577884996 49 103 31 56
148 7.8412245291569098 8.6845155328538137 22.010944759828245 149 132 112 1.3072284859720256 29 69 31 68 51 73 50 61
150 1.1577389623710219 -5.2354799871103115 21.257104992045345 0 1 0 0.56430744783622933 29 93 46 88
153 -51.171921551728765 -23.365131418972087 109.00193812365072 104 90 71 1.0710734847846772 49 111 52 114 31 90 46 90 21 103 51 101 24 82 50 113
154 -46.928910773293204 -29.906294796304003 107.21013084596575 168 151 131 1.3126710721240422 49 102 52 109 31 98 28 103 43 105
155 -3.4753339651433364 -9.8384047139579209 27.887114758527559 88 86 89 1.9995764961623717 52 69 31 99 51 99 28 89 43 106
156 5.8400632871767817 11.93626142906742 27.158581990966468 143 126 104 1.7708973605550407 31 102 46 107 21 124 51 88
157 7.2645440504080234 10.316926541824829 28.299376977678694 28 10 8 1.5017878292434439 49 119 52 117 31 107
160 1.0547888439480855 -10.102571916173295 23.577333745585811 62 63 68 2.0440015232278461 49 17 52 11 22 6 24 8 50 26 42 33
161 -52.608493212271469 -37.648139061354193 110.27356684535728 171 158 139 1.4242803246909943 52 16 31 13 21 24 51 22 28 13 22 8 24 17 50 27 42 19
162 1.5246967416442045 1.7851962144208349 38.521161687843808 25 6 8 1.5688034976292216 49 18 46 37 52 10 28 9 43 9 43 13 22 11 22 15 24 13 24 14
164 -56.035804878277531 -55.995312082920158 119.72384869070295 104 100 90 1.8383566651911689 49 74 52 71 31 83 46 75 21 78 51 70 28 60 43 61 22 78 24 70 50 77 42 83
166 1.3948469497692129 1.4434172123402134 8.009369167383694 64 49 30 1.5372295587879734 29 65 46 0
168 3.6672816938414803 -8.2858864138141364 22.12859397068404 150 150 140 1.1729382486420292 31 14 46 16 21 14
175 -1.0179843726150941 -6.5475128433461167 39.62303903704121 48 34 33 1.4359883850134862 46 44 21 99
177 -1.0179843726150926 -6.5475128433461149 39.623039037041202 48 34 33 1.435988385013613 46 54 21 92
179 1.366458905832248 -0.77588581947484025 4.0128202859835325 12 3 0 1.4966272326548062 31 113 46 66
181 -31.269312327233312 -13.596700153046148 61.797441331292006 105 97 76 2.4578517514158298 31 77 52 43 46 70 28 21 49 33 22 33 21 101
182 -1.6427274034888693 -8.3704109639731676 27.547781108241871 79 61 41 2.0320485810920199 29 89 31 78 46 71 21 104
190 -40.350763675927986 -57.260034323175326 120.83199369124593 199 191 170 1.6842937514933503 46 28 49 30 21 18 51 14 22 37 52 34
191 0.51125060569436886 -7.8830596703530391 27.38951578206099 80 62 42 1.0592999253942181 28 92 52 67 49 78 43 94 22 85
192 0.72574408722761574 -4.3731535321825259 9.6431144037719712 201 187 161 1.8925682253558707 52 70 46 72
195 1.4819791960532518 -8.6540545488619998 39.986146323862002 181 182 174 2.0973320145558332 29 95 46 125 21 127
197 3.6480359040485317 -8.2368994524834296 21.960477743695701 148 148 140 0.93559123572597158 46 14 21 11
198 -7.0035772112055756 -5.3191796235292408 37.461127826075483 38 33 30 1.4342858043218121 31 9 46 5 21 13 51 29
199 5.3353036792545856 -14.28467334639655 27.813700704852902 211 195 169 1.3131802320688895 31 24 46 35 21 19 51 25
204 5.3353036792545803 -14.284673346396524 27.813700704852849 211 195 169 1.3131802320689123 31 27 46 24 21 26 51 24
206 -4.4728739695755388 -8.8316607321805076 30.14796785162736 24 19 16 0.5012422076488342 49 32 52 42 21 31
207 6.3778181774313554 12.009996816485367 26.307531091858465 147 126 98 1.359410522063383 46 32 21 37 31 22
209 -12.012140741995688 -1.0967541652629973 38.839782878114043 67 49 38 0.73996473456529532 46 119 51 83
210 8.5416304978620126 -5.2131562565804899 27.548030502314923 178 191 181 0.49927039418760866 31 45 21 47
212 7.0891162357592741 7.1044325737009579 23.57943010964458 146 130 107 0.72713711580728135 46 51 21 56 22 40
213 -29.325282399932121 18.678654605018529 86.027247313398945 42 23 15 1.7512469703301261 21 74 28 67 43 66 24 72
214 10.857501232043177 -10.578549116406048 32.919180358148303 133 114 82 1.1468199456278072 46 83 21 77
216 5.8314124177642661 11.891537257645519 27.021208192742154 144 124 100 2.205625929714802 31 94 46 97 21 87 51 116 50 117
217 8.9648648268570934 15.774513004535084 24.243621001526293 131 113 91 2.3146204614918844 46 81 21 88
218 -10.317622700058413 -5.9687417163757637 34.011086506568368 0 1 4 2.1208577743510379 31 88 46 114 21 90 51 90 49 110 52 99 50 110
223 2.0347130126874378 -13.105827283058385 25.129379918111777 195 177 153 0.29674417774150752 46 73 21 109
225 10.474274439018071 16.984462803318532 23.454849763514858 171 180 185 0.66670479056101184 31 104 46 109 21 111 51 113 50 72 42 68
226 -9.7837119281799758 21.074584537842998 34.217592213612718 214 223 222 0.75711448306673179 31 103 21 125 51 115 50 120 42 112
227 8.9648648268570934 15.774513004535084 24.243621001526293 131 113 91 2.3146204614918844 46 59 21 126
228 3.0755243996192898 -12.011430916804017 24.31887301209273 36 26 15 0.60553642242704819 46 15 21 25 51 23
229 -5.3425129237236701 -7.7135304026150564 33.212856886020219 153 157 151 1.9922624487457723 31 29 46 22 21 51 51 49
231 -10.979584888399016 -8.7362305907002185 36.546259957139924 0 0 0 2.0061989478075382 29 81 31 66
235 2.9433133970088377 0.77623697089442789 24.100266501263878 20 3 2 1.6328810000206717 21 6 51 11
236 1.2431799309342715 -8.8435735823186956 20.702480109374729 0 0 0 1.6563499008010301 31 10 46 8 21 12
237 2.3436945948952728 16.184046928726293 28.099558235310891 145 127 107 0.91927424075036401 21 29 46 21 51 17 50 29 42 28
238 -4.6198171478186074 7.4953304011725574 40.032724397936768 7 1 0 1.5391405973667254 21 22 51 18
245 1.3622695177313429 -0.64407248063441214 4.5446930355886082 142 133 119 0.040250022209322209 46 122 51 45
246 4.3640456420826697 -4.5137371303337792 34.233250699544293 192 192 184 1.7269373995152772 21 46 51 46
249 1.0940777083929456 -7.3205218187317733 36.155881882741966 95 78 68 2.6388240120171194 21 48 51 54
250 9.0151150569124017 -5.3460528763732489 29.085846760180647 198 211 198 1.3216448863982997 51 55 50 38
251 9.0151150569124017 -5.3460528763732489 29.085846760180647 198 211 198 1.3216448863982997 51 56 50 35
253 1.0940777083929456 -7.3205218187317733 36.155881882741966 95 78 68 2.6388240120171194 21 65 51 58
255 8.9388006218802456 -0.40269492979878418 38.627234337927021 196 197 189 0.66486081784179396 21 44 46 46 51 63
258 5.6481768404369914 4.4848524629390827 21.767320878777817 29 10 4 2.1794114615168447 51 74 22 76 24 83
260 1.0757016792429481 0.18490135259831186 5.377727703970498 134 127 108 0.32928678980073112 31 17 51 76
267 2.371706220061605 -9.1320220663481226 36.426894448558642 1 0 0 1.7471701333925553 31 75 51 106
268 -4.6879577643037162 2.2240976692919543 34.332279988101753 32 26 26 1.0974680217892203 21 112 52 124 51 112 42 103
269 3.075524399619288 -12.011430916804006 24.318873012092705 22 17 13 0.6055364224270352 51 26 46 20 21 16
270 -0.67584109271065551 24.537358116732687 30.448311475581477 175 181 181 0.58562478347378655 49 1 51 5
271 1.6573881047596495 1.6484334449284914 33.075219658181886 2 1 0 1.0859433095389002 21 36 51 36
272 5.9080775277887794 5.35794363909101 25.889143563258656 59 42 31 1.9093104878144027 29 36 51 43
277 2.7231551534519589 -7.1705275317090251 27.16894698217768 1 0 0 0.95965152792996744 21 49 46 36 51 107
279 -14.994364605188998 -18.801159884796533 55.482424277579923 160 143 125 1.2941518944713668 52 2 28 3 43 3
283 -31.180701872621842 -13.624546804953521 61.866899524448122 119 103 82 2.2128368039103643 49 38 28 26 22 39 24 24
287 -8.1735947696355016 15.082288641317815 40.090465438733631 146 137 120 1.3087379590543071 49 58 52 65 28 42 43 60 22 56 24 54
288 -56.9837536920056 -33.378662633395606 112.69612769572743 161 145 122 2.1623052115279928 31 40 49 43 52 44 28 43 22 53 24 49
289 -44.072451345980113 -13.537469287692231 80.260578452259409 128 134 122 1.6266555343627402 49 46 28 44 43 44
290 -41.390025750519747 -4.2930925606845838 84.489842064198115 92 89 80 0.97751071077514207 49 47 52 50 28 48 43 41 22 46 24 45
292 1.6611231323205182 5.055061550981792 9.6202966476764296 163 162 156 0.20438638486600832 49 22 28 56
294 0.41119365367876637 20.002615249289171 34.093812138887301 163 144 114 1.0345862864099618 52 59 28 58 43 55 24 63
296 -5.3060991029051383 0.13182816800563635 31.216475113064028 89 67 51 3.4514132026358562 46 117 28 66
297 8.0690741549491296 6.225078497524505 36.299714576199079 31 16 23 1.7726613274626337 49 84 52 91 28 74 43 77 24 96
299 3.3809330844065948 -13.513439378208487 27.099137221530988 76 65 61 1.4023013041653267 52 46 43 79 22 55 28 77
300 -1.1029424094743545 -7.1219589473748011 41.736779163386991 35 23 23 0.47279882822329983 29 27 28 81 43 83
302 4.1567217592033705 -4.3449419310948176 34.316074813377625 188 195 187 1.6559785801401301 49 69 28 97 52 88 43 98
303 -2.2762840971049187 18.905190511952522 36.072439775866542 143 135 114 0.10190979684038112 49 125 28 104
304 -28.060650459495317 2.9230277467981778 63.664088058537281 190 202 181 0.47072536208653964 29 12 28 107 43 126
308 -11.960612432533662 1.5910746924135886 40.878850613477056 133 119 110 0.46997770294729851 46 126 28 120 43 125
309 -10.186940649078702 -1.6681761590530249 49.823880136489564 142 138 117 2.8861980047782052 21 113 28 123
310 1.8724608294762159 -4.9965490430747241 34.017841065974288 188 194 192 1.9830161839092151 52 127 28 125
311 -16.080389078044146 -3.8188305437654164 35.372294150853271 62 60 61 0.4382919418121678 49 104 52 104 28 126
312 -4.0213967546325939 -5.8761316575877256 24.777657619693244 164 161 156 3.5719415775387153 49 60 28 90
313 -3.0030751712205492 2.242118880733599 6.6537414569027442 28 19 19 1.0995121810312267 49 12 28 116
322 -3.9441385998811738 -11.006507328268603 28.34247249743996 218 204 177 0.55072994890629412 28 41 29 88 43 48
328 -1.6138905713732006 -7.836985748752249 26.405944288101153 88 69 49 0.88783618247603668 28 79 49 77 52 68 43 81 22 84 24 87
329 4.7934941139350826 1.2348939928284244 21.818515734375065 63 50 44 0.087263910392819791 21 42 43 86
331 2.0950979241287864 -8.8349140049495123 34.951851366488007 1 0 2 0.59325491524998764 28 94 49 88 52 107 43 92 24 99
334 -29.858233443512528 19.064181504532851 87.884521207948694 39 32 24 2.2091700908004586 51 44 28 87 43 88 21 80 24 95 42 45
335 -11.941830908720146 3.0516490277712638 38.569454325551867 80 80 76 1.2231340307554568 43 33 31 34 28 33
336 2.9026281242578116 -6.7631678837206071 25.995701891815038 101 80 59 1.0359670106710723 43 15 22 9 28 10 24 10
339 -0.41088662455822145 -7.7318941031296635 25.718660892914652 0 0 0 1.7748533477370163 28 4 43 4 51 3
341 -48.731691799874746 -34.101730919475912 101.12539361729443 0 0 0 0.36674618511591017 43 10 46 11
344 -48.731691799874746 -34.101730919475912 101.12539361729443 0 0 0 0.36674618511591017 43 16 46 12
345 -4.0422597854560003 -7.9330671799310135 26.75872389415915 66 71 77 1.1304204546454466 28 22 29 25 43 22 24 27
346 -9.2846317597524326 -5.9689867267028873 33.42198774418646 16 6 4 1.6975189867077116 21 38 29 18 49 24 52 17 22 26
351 -0.023477858926168511 -12.866378632682039 30.956772727133668 53 47 51 0.91078029937716931 43 70 22 54
353 4.1789439709347169 2.8522079151796995 20.946337348331685 156 140 117 1.9067989712199749 21 40 22 58
354 -1.9129252233075174 15.261953541571168 37.64318502068469 54 38 39 0.55106762000318754 49 53 52 58 22 61
355 5.7446231678592481 17.096664576785056 31.151032600265108 0 0 0 0.98595278641132433 31 53 46 52 29 54
356 -0.85372137133919801 0.5906901625988179 36.368403399357852 42 33 29 0.28758705760202269 49 95 52 108 22 74
359 0.53247388936062823 -7.5375287791614092 25.751539493291691 0 0 0 0.32523167585837448 29 49 46 69
362 -0.85372137133919801 0.5906901625988179 36.368403399357852 42 33 29 0.28758705760202269 49 115 52 112 22 92
363 -9.8571975809071013 1.4188562249425747 19.690064051750607 0 0 0 1.9801224437108784 49 14 52 125
369 -10.510195864008555 -11.996576236258962 36.11252917613988 0 0 0 3.0758439070213175 22 2 49 4
379 2.3166476303541272 17.183658366495649 30.469749829887352 142 124 102 1.3495891041035581 22 29 28 17 43 19 24 31
380 5.8011623301823345 10.82336792273551 23.034141621157548 165 149 126 1.5734751145576034 22 30 24 32 52 20
381 -7.9122959480860029 6.6399988187244512 27.015782385825073 99 89 80 0.49168481206918047 21 115 24 34
383 -13.932903504186601 3.5952017018785609 44.938530949623498 0 0 0 2.6636838581472766 22 36 46 38 52 36
384 2.4857790946372949 -0.98221601686045745 17.41260350760837 189 181 170 1.5518505815083481 49 28 24 44
385 -7.4897530258130001 -3.5510447991700329 34.451188273761922 51 41 42 0.64489350672506962 28 47 43 42 24 46
388 8.0721103454129182 9.0578607220249907 21.86904511946809 164 163 158 2.2627882353213553 22 62 43 53 24 61
389 0.73961334429448733 21.036460652152954 35.780803749183477 0 0 0 0.56543231021120932 22 63 49 39
391 16.536280969816996 1.2368656300694139 54.166963562837971 26 8 4 0.68836800984379765 29 100 24 74
394 -1.6967338886262493 -6.7333244970654693 39.345852782471944 0 0 0 0.5436360243180367 22 98 51 57
395 1.0654120636608575 -1.9331816074705672 18.381191509311709 0 0 0 0.61853300903384079 22 73 31 118
398 -4.1519590193212403 3.560672130718864 31.486619991346664 12 0 0 3.6551557111484909 52 54 24 93
399 5.9961914423500344 -8.7692392559729999 35.07001337727781 7 2 0 2.4793387438355543 22 86 28 80 43 82 24 94
401 5.5711199522305259 2.1157126530200259 20.794842016877912 126 123 117 1.903195398959566 52 62 22 50 24 55 28 51 29 35 43 39
410 -2.0614774501193414 -2.9612034461958299 9.8768230881769448 0 0 0 0.9107206706508173 49 76 51 20
412 -42.468776411043024 -59.826870983951061 126.79100507073258 193 183 164 1.8316689989314303 21 28 31 28 46 29 51 15 50 31 42 34
413 11.894100977338397 -6.4492480571039561 33.734157975298011 135 116 83 1.456639010461116 21 32 50 34
418 -1.2144778894269113 -6.2434529583968956 35.788630376392405 15 4 2 1.4819394612505532 51 48 50 53 42 43
419 -19.008138902030133 2.2225268520865735 50.662002529317746 182 170 146 0.26105072278209923 50 57 42 54
422 0.12344065175007221 -4.0492528712398386 13.457675376088883 0 0 0 0.44050590790470839 46 86 51 59
424 -3.3497884311019179 -8.7034028355103938 15.73025537328706 0 0 0 0.89536392893156336 21 83 51 97
425 -10.128521485730161 11.322597415219473 40.95780262570382 146 138 125 0.82363066265629836 51 77 50 98 42 105
426 2.0800438583972647 -2.5265995535530483 5.6942852902962127 180 187 169 0.11562120309174703 31 87 50 107
430 9.2170430397919265 7.727452243024028 22.160994687233281 66 39 20 0.33724615332857144 51 117 50 121
431 6.484649237099279 8.7402953290061234 24.034891572548219 72 51 33 1.6977776907276942 50 122 46 105 51 119
432 8.2217441928124035 11.628966321338485 24.903655838076318 160 165 159 2.0527327694625512 51 8 50 11 42 29
433 -32.386329401755411 -38.441536681656117 104.73445697354801 201 183 159 0.44755165060134028 21 4 42 3
434 -0.64558969863055671 22.658779552137119 28.585149373905729 170 179 174 1.1861171293208508 50 6 42 4
435 15.199555824539736 -0.057487585369770708 50.308950244571463 126 124 114 2.0699088384028888 50 8 42 7
436 7.0676181598163659 -2.3821768472406752 23.282099559925069 162 145 123 2.2730867806423447 46 19 42 17
437 -13.35486792887064 14.705329150495922 35.724305883201104 214 222 224 1.4908160222409599 31 5 50 14 42 18
439 4.1365178625777057 -0.22012814138062858 19.027279197055581 1 0 0 0.65861654982388007 46 63 42 30
440 20.939125578122347 -44.954712622063489 94.088192543618774 122 119 104 1.5840089283457011 21 30 42 35
442 6.6963038066220646 6.510195814513537 22.02834687506132 150 134 114 1.0365849669670169 50 48 51 52 42 50
445 -14.831012215400904 6.4486188947665628 44.420134626471715 192 174 138 1.3471121988104295 50 86 42 57
446 -14.30513234716897 6.1400683246386718 43.22107325934352 192 174 138 1.9221633463082153 21 73 50 69 42 58
447 1.5784539511141877 -10.627173917003038 22.721481967027152 53 48 54 0.86751228024729388 21 69 42 59
448 -35.118586144649385 0.025214775242187536 72.219347759476236 165 173 160 1.6112815406541621 46 120 42 63 31 117
449 -8.1645088391611065 6.9048063261312373 31.439803309770703 0 0 0 1.02304723801157 46 10 50 73
450 -10.142249924726627 11.370590517185361 41.032457584919023 143 140 125 0.58288092427725802 50 88 42 90
451 5.9610484299859303 -4.2678973028071985 6.9034488597403705 185 190 184 1.4272146107210104 50 78 42 95
452 0.69771894458228811 -4.7358059899544207 14.089722461819095 4 0 0 3.3620470247466923 50 80 42 96
453 1.1036910309698422 -1.7544175284056949 8.8962868379424442 135 140 133 0.79227352762691639 21 93 42 102
454 -11.362388239420927 11.447458627008274 37.36395334836719 180 168 156 0.46930128128501192 50 100 42 107
456 14.350783191077737 -12.65483188544853 40.449578163912413 41 44 34 2.5489917729911316 50 54 42 40
457 4.7795934200577426 2.6437713186468832 21.599699165501029 159 145 118 1.6376771134447714 51 89 42 106
